# .PCD v0.7 - Point Cloud Data file format
VERSION 0.7
FIELDS x y z
SIZE 4 4 4
TYPE F F F
COUNT 1 1 1
WIDTH 1936
HEIGHT 1
VIEWPOINT 0 0 0 1 0 0 0
POINTS 1936
DATA ascii
0.1 -14.723551 1.5499201
0.1 -14.736141 1.7941101
0.1 -14.74337 1.78688
0.1 -14.746051 1.91259
0.1 -16.51783 2.03232
0.1 -16.66069 2.01546
0.1 -16.636322 2.1134999
0.1 -16.75481 2.19468
0.1 -16.897671 2.17782
0.1 -16.873302 2.2758598
0.1 -16.611952 2.21154
0.1 -16.587582 2.3095798
0.1 -16.469091 2.2284
0.1 -14.37015 2.1914399
0.1 -14.233431 2.19716
0.1 -14.351501 2.1114399
0.1 -14.33285 2.03144
0.1 -14.196131 2.0371599
0.1 -14.46957 2.0257199
0.1 -14.606291 2.02
0.1 -14.72624 1.44986
0.1 -14.731951 1.5622001
0.1 -14.73766 1.67454
0.1 -14.727751 1.5560601
0.1 -14.71784 1.43758
0.1 -14.76321 2.1264
0.1 -14.632191 2.1480799
0.1 -14.50117 2.16976
0.1 -14.61924 2.0840399
0.1 -14.73731 1.9983199
0.1 -17.034821 2.1663899
0.1 -16.916332 2.0852098
0.1 -16.79784 2.00403
0.1 -16.934992 1.9926
0.1 -17.072142 1.9811699
0.1 -14.42338 2.6300299
0.1 -14.51899 2.5505998
0.1 -14.55481 2.60059
0.1 -14.68624 2.5711501
0.1 -14.781851 2.49172
0.1 -14.817671 2.5417101
0.1 -14.59063 2.6505802
0.1 -14.62645 2.7005699
0.1 -14.49502 2.73001
0.1 -14.57099 2.8199999
0.1 -14.68931 2.7575901
0.1 -14.72946 2.79759
0.1 -14.88793 2.7751801
0.1 -15.00625 2.7127702
0.1 -15.0464 2.7527702
0.1 -14.76961 2.83759
0.1 -14.809761 2.8775899
0.1 -14.651291 2.8999999
0.1 -16.421862 2.3661199
0.1 -16.543991 2.4055398
0.1 -16.521132 2.4452198
0.1 -16.620401 2.5243199
0.1 -16.742531 2.56374
0.1 -16.719671 2.60342
0.1 -16.498272 2.4848998
0.1 -16.47541 2.5245798
0.1 -16.376141 2.4454799
0.1 -16.885391 2.54688
0.1 -16.786121 2.4677799
0.1 -16.686852 2.3886797
0.1 -16.829712 2.3718197
0.1 -16.972572 2.35496
0.1 -16.319 2.5204098
0.1 -16.441132 2.55983
0.1 -16.563261 2.5992498
0.1 -16.68539 2.6386697
0.1 -16.406851 2.5950799
0.1 -16.37257 2.6303298
0.1 -16.250441 2.59091
0.1 -15.120541 2.6556299
0.1 -14.96207 2.67804
0.1 -14.8036 2.7004502
0.1 -14.64513 2.7228601
0.1 -14.917891 2.6433098
0.1 -14.873711 2.6085799
0.1 -15.032181 2.58617
0.1 -14.879001 2.39432
0.1 -14.74757 2.4237599
0.1 -14.61614 2.4531999
0.1 -14.71329 2.3557999
0.1 -14.81044 2.2584
0.1 -14.76976 2.9893
0.1 -14.888081 2.9268901
0.1 -15.006401 2.86448
0.1 -15.124721 2.8020699
0.1 -14.9664 2.9761899
0.1 -15.044721 3.02549
0.1 -14.926401 3.0878999
0.1 -16.033291 2.7374599
0.1 -16.06757 2.8454399
0.1 -16.02186 2.8629799
0.1 -16.010429 2.9884999
0.1 -16.04471 3.0964799
0.1 -15.999 3.1140199
0.1 -15.976151 2.8805199
0.1 -15.93044 2.8980601
0.1 -15.94187 2.7725399
0.1 -16.66399 2.852
0.1 -16.50758 2.8478301
0.1 -16.566851 2.7781098
0.1 -16.469711 2.7042198
0.1 -16.313301 2.7000499
0.1 -16.626122 2.70839
0.1 -16.782532 2.7125599
0.1 -15.793291 3.1470799
0.1 -15.75329 3.1544697
0.1 -15.78758 3.0354698
0.1 -15.78187 2.9238598
0.1 -15.741871 2.9312499
0.1 -15.77616 2.8122499
0.1 -15.821871 2.9164698
0.1 -15.85616 2.7974699
0.1 -15.86187 2.90908
0.1 -14.96932 2.52915
0.1 -14.85503 2.5862901
0.1 -14.74074 2.64343
0.1 -14.836349 2.5639999
0.1 -14.93196 2.48457
0.1 -15.69044 2.8192298
0.1 -15.684731 2.9312499
0.1 -15.63901 2.9308398
0.1 -15.587581 3.0424497
0.1 -15.581871 3.1544697
0.1 -15.53615 3.1540599
0.1 -15.59329 2.9304297
0.1 -15.54757 2.9300199
0.1 -15.599 2.8184097
0.1 -16.484722 3.0136402
0.1 -16.387581 2.93975
0.1 -16.427582 2.9091101
0.1 -16.370441 2.80458
0.1 -16.2733 2.73069
0.1 -16.467581 2.8784699
0.1 -16.56472 2.9523599
0.1 -16.084709 3.2050498
0.1 -16.09614 3.07953
0.1 -16.107571 2.9540098
0.1 -16.118999 2.82849
0.1 -16.14757 3.0625799
0.1 -16.199001 3.0456297
0.1 -16.187569 3.17115
0.1 -15.05043 3.15395
0.1 -15.084721 3.0447099
0.1 -15.13043 3.0614598
0.1 -15.21043 2.9689701
0.1 -15.24472 2.85973
0.1 -15.29043 2.8764799
0.1 -15.17614 3.0782099
0.1 -15.221849 3.09496
0.1 -15.14185 3.1874499
0.1 -15.124721 2.9329998
0.1 -15.164721 2.82129
0.1 -15.20472 2.7095802
0.1 -15.20472 2.8405101
0.1 -15.28472 2.7480199
0.1 -16.18187 2.6495998
0.1 -16.22187 2.7581699
0.1 -16.18758 2.7816098
0.1 -16.193291 2.9136198
0.1 -16.233292 3.0221899
0.1 -16.15329 2.8050499
0.1 -16.113289 2.69648
0.1 -15.27328 3.2196701
0.1 -15.27899 3.10765
0.1 -15.36471 3.1231201
0.1 -15.456141 3.0265701
0.1 -15.46185 2.9145501
0.1 -15.45043 3.1385901
0.1 -15.44472 3.2506101
0.1 -16.290432 3.12672
0.1 -16.284721 2.99471
0.1 -16.279011 2.8627
0.1 -16.336151 2.9672301
0.1 -16.393291 3.0717599
0.1 -15.31328 2.99841
0.1 -15.34757 2.8891699
0.1 -15.381861 2.7799299
0.1 -15.404711 2.90186
0.1 -15.49614 2.80531
0.1 -15.82757 3.25506
0.1 -15.86186 3.13606
0.1 -15.896151 3.01706
0.1 -15.930429 3.1250398
0.1 -15.96471 3.2330198
0.1 -15.690441 3.0428598
0.1 -15.69615 3.1544697
0.1 -15.70186 3.2660799
0.1 -15.63901 3.1544697
0.1 -15.58758 3.2660799
0.1 -18.059807 1.11937
0.1 -18.188585 1.11673
0.1 -18.191235 2.21122
0.1 -18.322666 3.3030698
0.1 -18.451447 3.3004298
0.1 -18.454098 4.3949203
0.1 -18.193886 3.3057098
0.1 -18.196537 4.4001999
0.1 -18.065105 3.3083498
0.1 -18.580227 3.2977798
0.1 -18.448795 2.20593
0.1 -18.317366 1.11408
0.1 -18.185936 0.022230018
0.1 -18.446146 1.1114299
0.1 -18.443497 0.016930003
0.1 -18.574926 1.10878
0.1 -19.697594 0.69870996
0.1 -19.833874 0.69870996
0.1 -19.828594 1.3848599
0.1 -19.959591 2.0710099
0.1 -20.095871 2.0710099
0.1 -20.090591 2.7571599
0.1 -19.823313 2.0710099
0.1 -19.818031 2.7571599
0.1 -19.687035 2.0710099
0.1 -20.221582 2.0710099
0.1 -20.090584 1.3848599
0.1 -19.959583 0.69870996
0.1 -19.828583 0.012559998
0.1 -20.085293 0.69870996
0.1 -20.080002 0.012559998
0.1 -20.211002 0.69870996
0.1 -19.245712 2.882
0.1 -19.354723 2.88728
0.1 -19.354723 2.9909999
0.1 -19.463734 3.0999999
0.1 -19.572742 3.1052799
0.1 -19.572742 3.2089999
0.1 -19.354723 3.0947199
0.1 -19.354723 3.1984398
0.1 -19.245712 3.0894401
0.1 -20.375872 3.1052799
0.1 -20.226871 3.0999999
0.1 -20.375872 2.9909999
0.1 -20.375872 2.87672
0.1 -20.226871 2.8714399
0.1 -20.375872 2.76244
0.1 -20.524872 2.882
0.1 -20.673872 2.773
0.1 -20.673872 2.88728
0.1 -19.681753 2.8714399
0.1 -19.818031 2.8714399
0.1 -19.954311 2.8714399
0.1 -20.090591 2.8714399
0.1 -19.818031 2.9857199
0.1 -19.818031 3.0999999
0.1 -19.681753 3.0999999
0.1 -20.822872 2.882
0.1 -20.827072 2.87585
0.1 -20.827072 2.9795699
0.1 -20.831272 3.0771401
0.1 -20.835472 3.0709898
0.1 -20.835472 3.17471
0.1 -20.827072 3.0832899
0.1 -20.827072 3.18701
0.1 -20.822872 3.0894401
0.1 -19.354723 2.773
0.1 -19.463734 2.882
0.1 -19.572742 2.87672
0.1 -19.572742 2.76244
0.1 -19.572742 2.9909999
0.1 -20.090591 3.2142799
0.1 -20.090591 3.0999999
0.1 -19.954311 3.0999999
0.1 -19.818031 3.2142799
0.1 -20.090591 2.9857199
0.1 -19.682835 3.34571
0.1 -19.817371 3.3171399
0.1 -19.818453 3.44857
0.1 -19.954071 3.55143
0.1 -20.088612 3.5228598
0.1 -20.089691 3.65429
0.1 -19.819534 3.5800002
0.1 -19.820614 3.7114301
0.1 -19.684994 3.6085699
0.1 -20.224892 3.5228598
0.1 -20.089272 3.4199998
0.1 -19.953651 3.3171399
0.1 -20.089931 3.3171399
0.1 -20.226212 3.3171399
0.1 -19.696404 3.7971399
0.1 -19.830944 3.7685702
0.1 -19.965481 3.74
0.1 -20.100021 3.7114298
0.1 -19.841272 3.8257101
0.1 -19.851601 3.8828499
0.1 -19.717064 3.9114201
0.1 -20.375872 3.2089999
0.1 -20.524872 3.0999999
0.1 -20.673872 2.9909999
0.1 -20.673872 3.0947199
0.1 -20.673872 3.1984398
0.1 -20.196812 3.95522
0.1 -20.228603 3.9876401
0.1 -20.105383 4.0606604
0.1 -20.013952 4.1661
0.1 -20.045742 4.1985202
0.1 -19.922523 4.2715402
0.1 -19.982162 4.1336803
0.1 -19.858942 4.2067003
0.1 -19.950373 4.1012602
0.1 -20.171871 3.90379
0.1 -20.048653 3.97681
0.1 -19.925432 4.04983
0.1 -19.802212 4.1228499
0.1 -19.900492 3.9984
0.1 -19.752331 4.01999
0.1 -19.875553 3.94697
0.1 -20.296082 3.8180799
0.1 -20.147923 3.8396699
0.1 -19.999762 3.8612599
0.1 -20.123972 3.7755499
0.1 -20.248182 3.6898401
0.1 -20.662863 4.3544502
0.1 -20.622864 4.3460503
0.1 -20.600014 4.2230201
0.1 -20.537163 4.0915904
0.1 -20.497162 4.0831904
0.1 -20.474312 3.96016
0.1 -20.577164 4.0999904
0.1 -20.554314 3.9769599
0.1 -20.617163 4.1083903
0.1 -20.434313 4.0827703
0.1 -20.497162 4.2142
0.1 -20.560013 4.3456302
0.1 -20.622864 4.4770603
0.1 -20.497162 4.3452101
0.1 -20.497162 4.4762201
0.1 -20.434313 4.34479
0.1 -21.03429 4.3108797
0.1 -20.960003 4.4369502
0.1 -20.942862 4.3243904
0.1 -20.851433 4.3379002
0.1 -20.777142 4.4639702
0.1 -20.760002 4.3514104
0.1 -20.925722 4.2118301
0.1 -20.908583 4.0992703
0.1 -21.000011 4.0857601
0.1 -20.405743 3.93437
0.1 -20.360023 4.0666604
0.1 -20.331451 4.0492702
0.1 -20.257162 4.1641703
0.1 -20.211441 4.2964602
0.1 -20.182873 4.2790704
0.1 -20.302883 4.0318804
0.1 -20.274311 4.0144901
0.1 -20.348602 3.89959
0.1 -20.000023 4.3308105
0.1 -20.091454 4.2253704
0.1 -20.182882 4.1199303
0.1 -20.137161 4.2522202
0.1 -20.091442 4.38451
0.1 -20.211441 4.4274702
0.1 -20.285732 4.3125701
0.1 -20.360023 4.19767
0.1 -20.360023 4.32868
0.1 -20.360023 4.4596901
0.1 -20.737152 4.2283802
0.1 -20.714302 4.10535
0.1 -20.691452 3.9823198
0.1 -20.811443 4.1023102
0.1 -20.885733 3.9762399
0.1 -22.582165 0.50571001
0.1 -22.563564 0.53999001
0.1 -22.452003 0.43714002
0.1 -22.321846 0.36857
0.1 -22.303246 0.40285
0.1 -22.191685 0.30000001
0.1 -22.340445 0.33429
0.1 -22.228886 0.23143999
0.1 -22.359043 0.30001
0.1 -22.828575 0.49456
0.1 -22.833105 0.49305001
0.1 -22.827394 0.49497002
0.1 -22.826214 0.49538001
0.1 -22.830746 0.49387002
0.1 -22.825035 0.49579
0.1 -22.821686 0.49689001
0.1 -22.815975 0.49881002
0.1 -22.817154 0.4984
0.1 -22.620296 0.47228003
0.1 -22.508736 0.36943001
0.1 -22.397175 0.26658002
0.1 -22.285614 0.16373
0.1 -22.435307 0.23315001
0.1 -22.361876 0.09686999
0.1 -22.473434 0.19972
0.1 -22.723156 0.58149999
0.1 -22.649727 0.44522002
0.1 -22.576294 0.30893999
0.1 -22.502865 0.17265999
0.1 -22.679155 0.41816002
0.1 -22.708584 0.39110002
0.1 -22.782017 0.52737999
0.1 -23.142864 0.34595001
0.1 -23.108574 0.47848001
0.1 -23.051434 0.35067001
0.1 -22.960007 0.35539001
0.1 -22.925716 0.48792002
0.1 -22.868576 0.36011001
0.1 -22.994295 0.22285999
0.1 -22.937157 0.095049992
0.1 -23.028584 0.09032999
0.1 -22.862865 0.36203
0.1 -22.857155 0.36395001
0.1 -22.851444 0.36587
0.1 -22.897156 0.2295
0.1 -22.931446 0.096969992
0.1 -22.160154 0.42570999
0.1 -22.290314 0.49428001
0.1 -22.420475 0.56285
0.1 -22.550636 0.63142002
0.1 -22.277386 0.58570999
0.1 -22.264454 0.67714
0.1 -22.134295 0.60856998
0.1 -23.214834 0.35889
0.1 -23.157694 0.23108
0.1 -23.100555 0.10326999
0.1 -23.043415 -0.024540018
0.1 -23.172523 0.11621
0.1 -23.187355 0.0013400197
0.1 -23.244495 0.12915
0.1 -22.657166 -0.010989976
0.1 -22.760025 0.098230004
0.1 -22.674305 0.12304001
0.1 -22.691444 0.25707
0.1 -22.794304 0.36629
0.1 -22.588585 0.14785001
0.1 -22.485725 0.038629998
0.1 -22.119854 1.21429
0.1 -22.255405 0.71714002
0.1 -22.253895 1.2314301
0.1 -22.387936 1.24857
0.1 -22.523483 0.75142002
0.1 -22.521975 1.26571
0.1 -22.252384 1.7457199
0.1 -22.250875 2.26001
0.1 -22.116837 2.2428701
0.1 -22.800026 -0.036219995
0.1 -22.817165 0.09781
0.1 -22.874306 0.097389996
0.1 -22.914307 -0.037060004
0.1 -22.834305 0.23184
0.1 -22.684675 0.64855999
0.1 -22.541584 0.67141998
0.1 -22.532536 0.71142
0.1 -22.666574 0.72856003
0.1 -22.398495 0.69428003
0.1 -23.201925 3.07142
0.1 -23.201925 3.1742799
0.1 -23.197765 3.0771401
0.1 -23.193605 3.08286
0.1 -23.193605 3.18572
0.1 -23.189445 3.0885799
0.1 -23.193605 2.98
0.1 -23.189445 2.8828599
0.1 -23.193605 2.87714
0.1 -22.660763 2.26001
0.1 -22.525215 2.7571599
0.1 -22.524134 2.26001
0.1 -22.387505 2.26001
0.1 -22.251955 2.7571599
0.1 -22.523054 1.7628599
0.1 -22.658604 1.26571
0.1 -22.793743 3.1057098
0.1 -22.661844 3.0999999
0.1 -22.793743 2.99143
0.1 -22.793743 2.8771498
0.1 -22.661844 2.8714399
0.1 -22.793743 2.7628701
0.1 -22.925644 2.8828599
0.1 -23.057545 2.7742898
0.1 -23.057545 2.8885701
0.1 -23.057545 3.19715
0.1 -23.057545 3.09429
0.1 -22.925644 3.0999999
0.1 -22.793743 3.2085698
0.1 -23.057545 2.99143
0.1 -22.253885 4.0468702
0.1 -22.119854 3.77999
0.1 -22.252377 3.8583
0.1 -22.250866 3.6697299
0.1 -22.116837 3.4028499
0.1 -22.249355 3.4811599
0.1 -22.384895 3.93661
0.1 -22.517414 4.0149202
0.1 -22.518925 4.2034903
0.1 -22.251955 3.0999999
0.1 -22.115326 3.0999999
0.1 -22.251955 2.9857199
0.1 -22.251955 2.8714399
0.1 -22.115326 2.8714399
0.1 -22.388584 2.8714399
0.1 -22.525215 2.8714399
0.1 -21.737165 2.882
0.1 -21.831707 2.88728
0.1 -21.831707 2.9909999
0.1 -21.926247 3.0999999
0.1 -22.020786 3.1052799
0.1 -22.020786 3.2089999
0.1 -21.831707 3.0947199
0.1 -21.831707 3.1984398
0.1 -21.737165 3.0894401
0.1 -21.831707 2.773
0.1 -21.926247 2.882
0.1 -22.020786 2.87672
0.1 -22.020786 2.76244
0.1 -22.020786 2.9909999
0.1 -22.251955 3.2142799
0.1 -22.388584 3.0999999
0.1 -22.525215 2.9857199
0.1 -22.525215 3.0999999
0.1 -22.525215 3.2142799
0.1 -22.654045 4.0149202
0.1 -22.520016 3.74804
0.1 -22.385984 3.4811599
0.1 -22.522614 3.4811599
0.1 -22.659245 3.4811599
0.1 -2.1687951 0.495635
0.1 -2.24265 0.495635
0.1 -2.240005 0.97871
0.1 -2.3112149 1.4617848
0.1 -2.3850698 1.4617848
0.1 -2.3824248 1.9448599
0.1 -2.23736 1.4617848
0.1 -2.234715 1.9448599
0.1 -2.1635051 1.4617848
0.1 -2.4536352 2.4279349
0.1 -2.5274901 2.4279349
0.1 -2.5248451 2.9110098
0.1 -2.596055 3.3940847
0.1 -2.66991 3.3940847
0.1 -2.6672649 3.8771598
0.1 -2.5222001 3.3940847
0.1 -2.5195551 3.8771598
0.1 -2.4483452 3.3940847
0.1 -2.3744903 3.3940847
0.1 -2.3718452 3.8771598
0.1 -2.3006351 3.3940847
0.1 -2.2267799 3.3940847
0.1 -2.2241349 3.8771598
0.1 -2.152925 3.3940847
0.1 -2.229425 2.9110098
0.1 -2.158215 2.4279349
0.1 -2.23207 2.4279349
0.1 -2.3797801 2.4279349
0.1 -2.3771353 2.9110098
0.1 -2.3059249 2.4279349
0.1 -2.7384801 3.3940847
0.1 -2.6672702 2.9110098
0.1 -2.59606 2.4279349
0.1 -2.5248499 1.9448599
0.1 -2.6646299 2.4279349
0.1 -2.6619902 1.9448599
0.1 -2.7332001 2.4279349
0.1 -2.45364 1.4617848
0.1 -2.3824301 0.97871
0.1 -2.3112199 0.495635
0.1 -2.2400098 0.012559998
0.1 -2.3797898 0.495635
0.1 -2.3771501 0.012559998
0.1 -2.44836 0.495635
0.1 -2.5169301 0.495635
0.1 -2.5142899 0.012559998
0.1 -2.5855 0.495635
0.1 -2.6540699 0.495635
0.1 -2.6514301 0.012559998
0.1 -2.72264 0.495635
0.1 -2.6567101 0.97871
0.1 -2.7279201 1.4617848
0.1 -2.6593499 1.4617848
0.1 -2.5222101 1.4617848
0.1 -2.5195699 0.97871
0.1 -2.59078 1.4617848
0.1 -0.89805007 4.3371301
0.1 -0.71783507 4.34131
0.1 -0.89672506 4.2756
0.1 -0.89540005 4.2140703
0.1 -0.71518505 4.2182503
0.1 -0.89407504 4.1525402
0.1 -1.075615 4.2098899
0.1 -1.254505 4.1441803
0.1 -1.25583 4.2057099
0.1 -0.89275002 4.0910101
0.1 -0.71253502 4.09519
0.1 -0.89142501 4.02948
0.1 -0.8901 3.9679501
0.1 -0.709885 3.9721301
0.1 -0.88877499 3.90642
0.1 -1.070315 3.9637699
0.1 -1.249205 3.8980601
0.1 -1.25053 3.9595897
0.1 -1.430745 3.9554098
0.1 -1.609635 3.8896997
0.1 -1.61096 3.9512298
0.1 -1.791175 3.9470499
0.1 -1.970065 3.8813398
0.1 -1.97139 3.9428699
0.1 -1.612285 4.0127602
0.1 -1.61361 4.0742903
0.1 -1.433395 4.0784702
0.1 -1.072965 4.0868301
0.1 -1.251855 4.0211201
0.1 -1.25318 4.0826502
0.1 -1.15212 4.4015198
0.1 -0.97190499 4.3371301
0.1 -1.404865 4.3358097
0.1 -1.6576099 4.2701001
0.1 -1.4773951 4.2057099
0.1 -1.9103551 4.20439
0.1 -1.8378251 4.3344898
0.1 -2.2707849 4.3331699
0.1 -2.0180399 4.39888
0.1 -2.1631 4.13868
0.1 -1.9828851 4.0742903
0.1 -2.4158449 4.0729699
0.1 -2.6685901 4.0072598
0.1 -2.4883752 3.9428699
0.1 -2.9213352 3.9415498
0.1 -2.848805 4.07165
0.1 -3.281765 4.0703301
0.1 -3.0290198 4.1360402
0.1 -3.209235 4.2004299
0.1 -3.6421947 4.19911
0.1 -3.3894501 4.2648201
0.1 -3.569665 4.3292103
0.1 -4.002625 4.3278904
0.1 -3.7498798 4.3936005
0.1 -3.1367049 4.3305302
0.1 -2.8839598 4.3962402
0.1 -2.7037449 4.3318501
0.1 -2.3433151 4.2030702
0.1 -2.7762752 4.2017498
0.1 -2.52353 4.2674599
0.1 -1.150795 4.27142
0.1 -1.3296851 4.2057099
0.1 -1.5085751 4.1399999
0.1 -1.4035401 4.2057099
0.1 -1.656285 4.1399999
0.1 -1.6874651 4.0742903
0.1 -1.8663551 4.0085802
0.1 -2.0452452 3.9428699
0.1 -2.1191001 3.9428699
0.1 -2.192955 3.9428699
0.1 -2.2668102 3.9428699
0.1 -2.3406651 3.9428699
0.1 -2.41452 3.9428699
0.1 -2.1617751 4.0085802
0.1 -1.9090302 4.0742903
0.1 -1.7613201 4.0742903
0.1 -2.0140653 4.0085802
0.1 -1.8351752 4.0742903
0.1 -2.9213352 3.8813398
0.1 -3.1015501 3.9457297
0.1 -3.281765 3.9499099
0.1 -3.281765 3.8896997
0.1 -3.4619799 3.9540899
0.1 -3.281765 4.0101199
0.1 -3.4619799 4.0745101
0.1 -3.6421947 3.9582698
0.1 -3.6421947 3.8980601
0.1 -3.8224099 3.96245
0.1 -4.002625 3.96663
0.1 -4.002625 3.90642
0.1 -4.1828399 3.9708099
0.1 -4.002625 4.0268402
0.1 -4.1828399 4.0912299
0.1 -4.002625 4.08705
0.1 -4.002625 4.1472602
0.1 -4.1828399 4.2116499
0.1 -4.002625 4.2074699
0.1 -4.002625 4.2676802
0.1 -4.1828399 4.3320704
0.1 -3.8224099 4.20329
0.1 -3.6421947 4.1389003
0.1 -3.6421947 4.0184803
0.1 -3.8224099 4.08287
0.1 -3.6421947 4.0786901
0.1 -7.5685606 0.0079399822
0.1 -7.5771308 0.078064993
0.1 -7.534276 0.070044994
0.1 -7.4999909 0.13214999
0.1 -7.5085611 0.20227499
0.1 -7.4657059 0.19425499
0.1 -7.4914207 0.062024999
0.1 -7.448566 0.054005001
0.1 -7.482851 -0.0080999853
0.1 -7.4314213 0.25635999
0.1 -7.439991 0.32648501
0.1 -7.3971362 0.31846499
0.1 -7.3628511 0.38056999
0.1 -7.3714213 0.45069501
0.1 -7.3285666 0.44267499
0.1 -7.3542814 0.31044501
0.1 -7.3114262 0.302425
0.1 -7.3457112 0.24032
0.1 -7.337141 0.170195
0.1 -7.2942863 0.162175
0.1 -7.3285713 0.10007
0.1 -7.3200011 0.029945005
0.1 -7.2771463 0.021925021
0.1 -7.3114309 -0.040179979
0.1 -7.3628559 0.037964988
0.1 -7.397141 -0.024140012
0.1 -7.4057112 0.045985002
0.1 -7.4228511 0.186235
0.1 -7.3799963 0.178215
0.1 -7.4142809 0.11611
0.1 -5.5069866 0.58933002
0.1 -5.5771561 0.60856998
0.1 -5.5545263 0.65789998
0.1 -5.602066 0.72646999
0.1 -5.6722364 0.74570996
0.1 -5.6496062 0.79503995
0.1 -5.5318966 0.70722997
0.1 -5.5092664 0.75655997
0.1 -5.4617262 0.68799001
0.1 -5.6971464 0.86360997
0.1 -5.7673159 0.88284999
0.1 -5.7446861 0.93217999
0.1 -5.7922258 1.0007499
0.1 -5.8623962 1.01999
0.1 -5.839766 1.06932
0.1 -5.7220564 0.98150998
0.1 -5.6994262 1.0308399
0.1 -5.651886 0.96226996
0.1 -5.5817165 0.94302994
0.1 -5.5590863 0.99235994
0.1 -5.5115461 0.92378998
0.1 -5.4413762 0.90455002
0.1 -5.418746 0.95388001
0.1 -5.3712063 0.88530999
0.1 -5.4640064 0.85522002
0.1 -5.4164662 0.78665
0.1 -5.4866362 0.80589002
0.1 -5.626976 0.84436995
0.1 -5.6043463 0.89369994
0.1 -5.5568066 0.82512999
0.1 -6.8685608 0.41176999
0.1 -6.8114161 0.41025001
0.1 -6.8685608 0.34454
0.1 -6.8685608 0.27731001
0.1 -6.8114161 0.27579001
0.1 -6.8685608 0.21008
0.1 -6.9257059 0.27882999
0.1 -6.982851 0.21312
0.1 -6.982851 0.28035
0.1 -6.8685608 0.14285
0.1 -6.8114161 0.14133
0.1 -6.8685608 0.07562001
0.1 -6.8685608 0.0083899973
0.1 -6.8114161 0.0068700192
0.1 -6.8685608 -0.058839988
0.1 -6.9257059 0.0099100051
0.1 -6.982851 -0.055800002
0.1 -6.982851 0.011430013
0.1 -7.0399961 0.012949991
0.1 -7.0971413 -0.052759986
0.1 -7.0971413 0.014470029
0.1 -7.1542864 0.015990008
0.1 -7.2114315 -0.04972
0.1 -7.2114315 0.017510016
0.1 -7.0971413 0.081700012
0.1 -7.0971413 0.14893
0.1 -7.0399961 0.14741001
0.1 -6.9257059 0.14437
0.1 -6.982851 0.078659996
0.1 -6.982851 0.14589
0.1 -6.7485609 -0.050484996
0.1 -6.7742758 0.01342501
0.1 -6.711421 0.023300011
0.1 -6.6742811 0.097084999
0.1 -6.699996 0.16099499
0.1 -6.6371412 0.17086999
0.1 -6.6485662 0.03317501
0.1 -6.5857115 0.04305001
0.1 -6.6228514 -0.030734997
0.1 -6.6000013 0.244655
0.1 -6.6257162 0.30856499
0.1 -6.5628614 0.31843999
0.1 -6.5257211 0.392225
0.1 -6.5514364 0.456135
0.1 -6.4885807 0.46601
0.1 -6.5000057 0.32831499
0.1 -6.437151 0.33818999
0.1 -6.4742908 0.26440501
0.1 -6.448576 0.200495
0.1 -6.3857212 0.21037
0.1 -6.4228611 0.136585
0.1 -6.3971462 0.072675005
0.1 -6.3342915 0.082550004
0.1 -6.3714314 0.0087649999
0.1 -6.460001 0.062800005
0.1 -6.4971409 -0.010984999
0.1 -6.5228558 0.052925009
0.1 -6.5742865 0.18074501
0.1 -6.5114307 0.19062001
0.1 -6.5485711 0.116835
0.1 -8.2342958 0.36743
0.1 -8.2114353 0.43634501
0.1 -8.1714363 0.40597501
0.1 -8.1085758 0.44452003
0.1 -8.0857162 0.51343501
0.1 -8.0457153 0.48306501
0.1 -8.1314354 0.37560502
0.1 -8.0914364 0.34523499
0.1 -8.1542959 0.30669001
0.1 -7.9828558 0.52161002
0.1 -7.9599957 0.59052503
0.1 -7.9199958 0.56015497
0.1 -7.8571358 0.59869999
0.1 -7.8342762 0.667615
0.1 -7.7942762 0.637245
0.1 -7.8799958 0.52978498
0.1 -7.8399959 0.49941498
0.1 -7.9028559 0.46087
0.1 -7.9257159 0.39195499
0.1 -7.885716 0.36158499
0.1 -7.948576 0.32303998
0.1 -7.971436 0.254125
0.1 -7.9314361 0.22375499
0.1 -7.9942961 0.18520999
0.1 -8.0114365 0.284495
0.1 -8.074296 0.24595
0.1 -8.0514355 0.31486499
0.1 -8.0057163 0.45269501
0.1 -7.9657159 0.42232499
0.1 -8.0285759 0.38378
0.1 -6.7742758 0.080654994
0.1 -6.7742758 0.14788501
0.1 -6.7742758 0.215115
0.1 -6.7371359 0.15444
0.1 -6.699996 0.22822501
0.1 -6.7742758 0.282345
0.1 -6.7742758 0.34957501
0.1 -6.7742758 0.416805
0.1 -6.7742758 0.48403502
0.1 -6.7371359 0.42335999
0.1 -6.699996 0.497145
0.1 -6.699996 0.42991501
0.1 -6.6628561 0.43647
0.1 -6.6257162 0.51025498
0.1 -6.6257162 0.44302502
0.1 -6.5885763 0.44958001
0.1 -6.5514364 0.52336502
0.1 -6.6257162 0.37579501
0.1 -6.6628561 0.30201
0.1 -6.7371359 0.28890002
0.1 -6.699996 0.36268499
0.1 -6.699996 0.29545501
0.1 -6.8771315 0.481895
0.1 -6.9342761 0.41618499
0.1 -6.9914207 0.35047501
0.1 -7.0485659 0.28476501
0.1 -6.9999914 0.4206
0.1 -7.0657063 0.425015
0.1 -7.0085611 0.49072501
0.1 -7.105711 0.219055
0.1 -7.1628561 0.153345
0.1 -7.2200012 0.087634996
0.1 -7.2285709 0.15776001
0.1 -7.2371416 0.22788501
0.1 -7.2457113 0.29800999
0.1 -7.254281 0.36813501
0.1 -7.2628512 0.43826002
0.1 -7.2714214 0.508385
0.1 -7.1971359 0.43384501
0.1 -7.1399908 0.49955502
0.1 -7.1314211 0.42943001
0.1 -7.1142812 0.28918001
0.1 -7.1799965 0.29359502
0.1 -7.1228514 0.35930499
0.1 -7.3628511 0.52031499
0.1 -7.3971362 0.45820999
0.1 -7.4314213 0.39610499
0.1 -7.4657059 0.33399999
0.1 -7.4228511 0.465725
0.1 -7.4485664 0.47324002
0.1 -7.4142809 0.53534502
0.1 -7.4999914 0.27189499
0.1 -7.534276 0.20978999
0.1 -7.5685606 0.14768499
0.1 -7.6028461 0.085579991
0.1 -7.5599909 0.21730499
0.1 -7.5857058 0.22482
0.1 -7.5514212 0.28692499
0.1 -7.542851 0.356545
0.1 -7.5685663 0.36406001
0.1 -7.5342808 0.42616501
0.1 -7.5257111 0.49578503
0.1 -7.5514259 0.50330001
0.1 -7.5171413 0.56540501
0.1 -7.4999962 0.48827001
0.1 -7.4657116 0.55037498
0.1 -7.4742813 0.480755
0.1 -7.4914212 0.341515
0.1 -7.5171361 0.34902999
0.1 -7.482851 0.41113502
0.1 -6.2685709 0.563555
0.1 -6.2400007 0.57337499
0.1 -6.2457161 0.49553001
0.1 -6.2228613 0.42750502
0.1 -6.1942911 0.437325
0.1 -6.2000065 0.35947999
0.1 -6.2514315 0.417685
0.1 -6.2571459 0.33983999
0.1 -6.2800012 0.40786499
0.1 -6.1771512 0.291455
0.1 -6.1485815 0.30127499
0.1 -6.1542959 0.22342999
0.1 -6.1314411 0.155405
0.1 -6.1028709 0.16522498
0.1 -6.1085863 0.087379992
0.1 -6.1600113 0.14558499
0.1 -6.1657257 0.067739993
0.1 -6.188581 0.135765
0.1 -6.2171507 0.12594499
0.1 -6.2228661 0.048099983
0.1 -6.2457209 0.116125
0.1 -6.274291 0.10630499
0.1 -6.2800064 0.028460015
0.1 -6.3028612 0.096485004
0.1 -6.2685757 0.18415
0.1 -6.291431 0.252175
0.1 -6.2628613 0.26199499
0.1 -6.2057209 0.28163499
0.1 -6.2114363 0.20378999
0.1 -6.2342911 0.271815
0.1 -7.9114361 0.13748001
0.1 -7.9028664 0.2071
0.1 -7.8600063 0.18974
0.1 -7.8085761 0.242
0.1 -7.8000059 0.31162
0.1 -7.7571459 0.29426
0.1 -7.8171463 0.17238
0.1 -7.7742863 0.15502
0.1 -7.825716 0.10276
0.1 -7.7057161 0.34652001
0.1 -7.6971464 0.41614002
0.1 -7.6542864 0.39878002
0.1 -7.6028562 0.45104003
0.1 -7.594286 0.52065998
0.1 -7.6114264 0.38142002
0.1 -7.6199961 0.3118
0.1 -7.6285658 0.24218
0.1 -7.637136 0.17255999
0.1 -7.6457062 0.10293999
0.1 -7.6542759 0.033319999
0.1 -7.6885662 0.12029999
0.1 -7.739996 0.068039998
0.1 -7.7314262 0.13766
0.1 -7.7142859 0.27689999
0.1 -7.6714258 0.25953999
0.1 -7.722856 0.20728
0.1 -7.7973413 0.742535
0.1 -7.8602009 0.70398998
0.1 -7.9230609 0.66544503
0.1 -7.9859209 0.62690002
0.1 -7.886126 0.74036503
0.1 -7.9120512 0.77674001
0.1 -7.8491912 0.81528503
0.1 -8.0487804 0.588355
0.1 -8.1116409 0.54980999
0.1 -8.1745014 0.51126504
0.1 -8.237361 0.47272003
0.1 -8.1375656 0.58618504
0.1 -8.1634912 0.62256002
0.1 -8.1006317 0.66110504
0.1 -8.0636959 0.73602504
0.1 -8.0896215 0.77240002
0.1 -8.026762 0.81094503
0.1 -7.9898262 0.88586503
0.1 -8.0157509 0.92224002
0.1 -7.9528913 0.96078503
0.1 -7.9639015 0.84949005
0.1 -7.901041 0.888035
0.1 -7.9379764 0.813115
0.1 -8.0118465 0.663275
0.1 -8.0377712 0.69964999
0.1 -7.9749112 0.738195
0.1 -6.0142813 0.759395
0.1 -5.9911957 0.78587502
0.1 -5.9483409 0.72427005
0.1 -5.882401 0.68914503
0.1 -5.8593159 0.71562505
0.1 -5.8164611 0.65402001
0.1 -5.9054861 0.66266501
0.1 -5.8626313 0.60106003
0.1 -5.9285712 0.63618499
0.1 -5.7505212 0.61889499
0.1 -5.7274361 0.64537501
0.1 -5.6845813 0.58377004
0.1 -5.6186414 0.54864502
0.1 -5.5955563 0.57512498
0.1 -5.5527015 0.51352
0.1 -5.6417265 0.522165
0.1 -5.5988712 0.46055999
0.1 -5.6648111 0.49568501
0.1 -5.6878967 0.46920499
0.1 -5.6450415 0.40759999
0.1 -5.7109814 0.442725
0.1 -5.734066 0.41624501
0.1 -5.6912112 0.35464001
0.1 -5.7571516 0.38976499
0.1 -5.7769213 0.47785002
0.1 -5.8428612 0.51297498
0.1 -5.8197765 0.539455
0.1 -5.7736063 0.59241503
0.1 -5.7307515 0.53081
0.1 -5.7966914 0.56593502
0.1 -7.5714264 0.58957499
0.1 -7.6228561 0.53731501
0.1 -7.6742859 0.485055
0.1 -7.7257161 0.43279502
0.1 -7.6514263 0.55396998
0.1 -7.679996 0.57062501
0.1 -7.6285658 0.62288499
0.1 -7.7771463 0.38053501
0.1 -7.8285761 0.328275
0.1 -7.8800058 0.27601498
0.1 -7.8571463 0.34492999
0.1 -7.8342857 0.413845
0.1 -7.8114262 0.48276001
0.1 -7.7885656 0.55167496
0.1 -7.7657061 0.62058997
0.1 -7.7428465 0.68950498
0.1 -7.7371359 0.603935
0.1 -7.6857061 0.65619498
0.1 -7.7085657 0.58727998
0.1 -7.7542858 0.44945002
0.1 -7.782856 0.46610501
0.1 -7.7314262 0.51836503
0.1 -6.0343013 0.12606999
0.1 -6.0571566 0.194095
0.1 -6.0800114 0.26212001
0.1 -6.1028662 0.330145
0.1 -6.0114412 0.222965
0.1 -5.9657259 0.25183499
0.1 -5.9428711 0.18381
0.1 -6.125721 0.39816999
0.1 -6.1485758 0.46619502
0.1 -6.1714311 0.53421998
0.1 -6.1942863 0.60224503
0.1 -6.1028614 0.495065
0.1 -6.0571461 0.52393502
0.1 -6.0342913 0.45591
0.1 -5.9657211 0.41675499
0.1 -5.9200058 0.44562501
0.1 -5.897151 0.37760001
0.1 -5.8285809 0.33844501
0.1 -5.7828665 0.36731499
0.1 -5.7600112 0.29929
0.1 -5.8742962 0.30957499
0.1 -5.8514414 0.24155
0.1 -5.9200115 0.280705
0.1 -6.0571508 0.35901499
0.1 -6.0114365 0.387885
0.1 -5.9885812 0.31986001
0.1 -6.2942858 0.62746501
0.1 -6.3000011 0.54961997
0.1 -6.305716 0.471775
0.1 -6.3114309 0.39392999
0.1 -6.3314309 0.535685
0.1 -6.3628607 0.52174997
0.1 -6.3571463 0.59959501
0.1 -6.3171463 0.31608501
0.1 -6.3228607 0.23824
0.1 -6.3285761 0.160395
0.1 -6.354291 0.224305
0.1 -6.3800058 0.28821501
0.1 -6.4057212 0.35212499
0.1 -6.4314361 0.416035
0.1 -6.4571509 0.479945
0.1 -6.4828663 0.54385501
0.1 -6.4257212 0.49388
0.1 -6.4200058 0.57172501
0.1 -6.3942909 0.507815
0.1 -6.3428612 0.37999499
0.1 -6.3742914 0.36605999
0.1 -6.368576 0.443905
0.1 -5.3549414 1.24858
0.1 -5.284771 1.22934
0.1 -5.3640561 1.20648
0.1 -5.3731713 1.16438
0.1 -5.3030014 1.1451401
0.1 -5.3822861 1.12228
0.1 -5.4433413 1.18362
0.1 -5.5226264 1.1607599
0.1 -5.5135112 1.20286
0.1 -5.3914013 1.0801799
0.1 -5.3212309 1.06094
0.1 -5.400516 1.03808
0.1 -5.4096313 0.99597996
0.1 -5.3394613 0.97674
0.1 -5.4798012 1.0152199
0.1 -5.5499711 1.0344599
0.1 -5.620141 1.0537
0.1 -5.6903114 1.07294
0.1 -5.7604809 1.09218
0.1 -5.8306513 1.1114199
0.1 -5.6811962 1.1150399
0.1 -5.672081 1.15714
0.1 -5.6019115 1.1379
0.1 -5.4615712 1.09942
0.1 -5.5408564 1.0765599
0.1 -5.5317411 1.11866
0.1 -6.2371407 0.66385001
0.1 -6.168571 0.624695
0.1 -6.1428556 0.64714503
0.1 -6.1857109 0.70875001
0.1 -6.1171408 0.669595
0.1 -6.1000013 0.58554
0.1 -6.0314312 0.54638499
0.1 -6.0914259 0.69204503
0.1 -6.1342812 0.75365001
0.1 -6.065711 0.714495
0.1 -6.0399961 0.73694503
0.1 -6.0828514 0.79855001
0.1 -5.9971409 0.67534
0.1 -5.9542866 0.61373502
0.1 -5.9114313 0.55212998
0.1 -5.868576 0.49052501
0.1 -5.8257213 0.42892
0.1 -5.8942909 0.46807501
0.1 -5.9628611 0.50722998
0.1 -6.0485711 0.63044
0.1 -5.9800014 0.59128499
0.1 -6.0057163 0.56883502
0.1 -7.990581 1.040015
0.1 -8.0541515 0.98858505
0.1 -8.0659161 1.03144
0.1 -8.1412506 1.0228649
0.1 -8.2048206 0.97143501
0.1 -8.2165861 1.01429
0.1 -8.0776806 1.0742949
0.1 -8.0894461 1.1171499
0.1 -8.0141106 1.1257249
0.1 -8.2919216 1.005715
0.1 -8.3554916 0.95428503
0.1 -8.3672562 0.99713999
0.1 -8.4425907 0.98856503
0.1 -8.5061607 0.93713504
0.1 -8.5179262 0.97999007
0.1 -8.3790207 1.039995
0.1 -8.3907862 1.08285
0.1 -8.3154507 1.0914249
0.1 -8.2518806 1.1428549
0.1 -8.2636461 1.18571
0.1 -8.1883106 1.1942849
0.1 -8.1247406 1.2457149
0.1 -8.1365061 1.2885699
0.1 -8.0611706 1.2971449
0.1 -8.1129761 1.20286
0.1 -8.0376415 1.211435
0.1 -8.1012115 1.160005
0.1 -8.2283516 1.057145
0.1 -8.2401161 1.1
0.1 -8.1647816 1.108575
0.1 -8.5670166 0.89427501
0.1 -8.4916811 0.90284997
0.1 -8.4163465 0.91142505
0.1 -8.341011 0.92000002
0.1 -8.4772015 0.86856502
0.1 -8.4627218 0.83428001
0.1 -8.5380564 0.82570499
0.1 -8.2656765 0.92857504
0.1 -8.190341 0.93715006
0.1 -8.1150064 0.94572502
0.1 -8.0396709 0.95429999
0.1 -8.1758614 0.90286499
0.1 -8.1613817 0.86858004
0.1 -8.2367163 0.86000502
0.1 -8.2975712 0.81714505
0.1 -8.2830915 0.78285998
0.1 -8.358427 0.77428502
0.1 -8.419281 0.73142499
0.1 -8.4048014 0.69713998
0.1 -8.4801369 0.68856502
0.1 -8.4337616 0.76571
0.1 -8.5090961 0.75713503
0.1 -8.4482422 0.79999501
0.1 -8.3265314 0.88571507
0.1 -8.3120518 0.85143
0.1 -8.3873863 0.84285504
0.1 -8.2982159 0.42986003
0.1 -8.261281 0.50477999
0.1 -8.2852011 0.53684002
0.1 -8.346056 0.49398002
0.1 -8.3091211 0.56889999
0.1 -8.2243462 0.57969999
0.1 -8.1874113 0.65461999
0.1 -8.3330412 0.60096002
0.1 -8.3938961 0.55809999
0.1 -8.3569613 0.63301998
0.1 -8.3808813 0.66508001
0.1 -8.4417362 0.62221998
0.1 -8.3200264 0.70793998
0.1 -8.2591715 0.75080001
0.1 -8.1983166 0.79365999
0.1 -8.1374617 0.83652002
0.1 -8.0766068 0.87938005
0.1 -8.1135416 0.80445999
0.1 -8.1504765 0.72953999
0.1 -8.2721863 0.64381999
0.1 -8.2352514 0.71873999
0.1 -8.2113314 0.68668002
0.1 -5.643096 0.643695
0.1 -5.7090359 0.67882001
0.1 -5.7749758 0.71394503
0.1 -5.6906362 0.71226501
0.1 -5.7381763 0.78083497
0.1 -5.8409157 0.74906999
0.1 -5.9068556 0.78419501
0.1 -5.972796 0.81932002
0.1 -6.0387363 0.85444504
0.1 -5.9543962 0.85276502
0.1 -6.001936 0.92133504
0.1 -5.9359961 0.88621002
0.1 -5.9175959 0.91965503
0.1 -5.9651356 0.98822504
0.1 -5.8991957 0.95310003
0.1 -5.880796 0.98654503
0.1 -5.9283361 1.055115
0.1 -5.8332558 0.91797501
0.1 -5.7857161 0.84940499
0.1 -5.822516 0.78251499
0.1 -5.8700562 0.85108501
0.1 -5.8041162 0.81595999
0.1 -5.7541409 1.6114299
0.1 -5.7497263 1.66
0.1 -5.6813712 1.6114299
0.1 -5.6086011 1.6114299
0.1 -5.6041861 1.66
0.1 -5.535831 1.6114299
0.1 -5.6130161 1.56286
0.1 -5.544661 1.51429
0.1 -5.6174312 1.51429
0.1 -5.4630609 1.6114299
0.1 -5.4586458 1.66
0.1 -5.3902907 1.6114299
0.1 -5.3175211 1.6114299
0.1 -5.3131056 1.66
0.1 -5.244751 1.6114299
0.1 -5.3219357 1.56286
0.1 -5.253581 1.51429
0.1 -5.3263512 1.51429
0.1 -5.3307657 1.4657199
0.1 -5.2624111 1.41715
0.1 -5.3351812 1.41715
0.1 -5.3395958 1.36858
0.1 -5.2712412 1.3200099
0.1 -5.3440113 1.3200099
0.1 -5.4079509 1.41715
0.1 -5.480721 1.41715
0.1 -5.476306 1.4657199
0.1 -5.4674759 1.56286
0.1 -5.3991208 1.51429
0.1 -5.4718909 1.51429
0.1 -8.612916 1.6000149
0.1 -8.6173258 1.6428699
0.1 -8.5401859 1.605725
0.1 -8.4674559 1.6114349
0.1 -8.4718657 1.65429
0.1 -8.3947258 1.6171451
0.1 -8.4630461 1.56858
0.1 -8.3859062 1.531435
0.1 -8.4586363 1.525725
0.1 -8.3219957 1.6228549
0.1 -8.3264055 1.66571
0.1 -8.2492657 1.6285651
0.1 -8.1765356 1.634275
0.1 -8.1809464 1.67713
0.1 -8.1038055 1.6399851
0.1 -8.1721258 1.5914201
0.1 -8.094986 1.554275
0.1 -8.167716 1.548565
0.1 -8.1633062 1.50571
0.1 -8.0861664 1.468565
0.1 -8.1588964 1.462855
0.1 -8.1544867 1.42
0.1 -8.0773468 1.3828549
0.1 -8.1500759 1.3771449
0.1 -8.2316265 1.457145
0.1 -8.3043566 1.451435
0.1 -8.3087664 1.49429
0.1 -8.3175859 1.58
0.1 -8.2404461 1.542855
0.1 -8.3131762 1.537145
0.1 -8.676486 1.5485849
0.1 -8.5993462 1.51144
0.1 -8.5222063 1.474295
0.1 -8.4450665 1.43715
0.1 -8.5857763 1.4228649
0.1 -8.5722065 1.33429
0.1 -8.6493464 1.3714349
0.1 -8.3679266 1.400005
0.1 -8.2907867 1.36286
0.1 -8.2136459 1.3257149
0.1 -8.277216 1.274285
0.1 -8.340786 1.222855
0.1 -8.404356 1.171425
0.1 -8.467926 1.119995
0.1 -8.531496 1.068565
0.1 -8.5950661 1.0171349
0.1 -8.5450668 1.1571399
0.1 -8.6222067 1.1942849
0.1 -8.5586367 1.2457149
0.1 -8.4314966 1.348575
0.1 -8.4179268 1.26
0.1 -8.4950666 1.297145
0.1 -5.8334255 1.5885699
0.1 -5.7650709 1.54
0.1 -5.6967163 1.49143
0.1 -5.6283607 1.4428599
0.1 -5.776001 1.46857
0.1 -5.786931 1.39714
0.1 -5.8552856 1.4457099
0.1 -5.5600061 1.39429
0.1 -5.4916511 1.3457201
0.1 -5.423296 1.29715
0.1 -5.5025811 1.27429
0.1 -5.5818663 1.25143
0.1 -5.6611509 1.22857
0.1 -5.7404361 1.2057099
0.1 -5.8197212 1.18285
0.1 -5.8990059 1.15999
0.1 -5.8087912 1.25428
0.1 -5.8771458 1.30285
0.1 -5.7978611 1.3257099
0.1 -5.6392908 1.3714299
0.1 -5.6502209 1.3
0.1 -5.718576 1.34857
0.1 -5.2424364 2.0030749
0.1 -5.3152061 2.0030749
0.1 -5.3879757 2.0030749
0.1 -5.4607458 2.0030749
0.1 -5.3173065 2.3461499
0.1 -5.3194065 2.689225
0.1 -5.2466364 2.689225
0.1 -5.5335159 2.0030749
0.1 -5.606286 2.0030749
0.1 -5.6790562 2.0030749
0.1 -5.7518263 2.0030749
0.1 -5.608386 2.3461499
0.1 -5.610486 2.689225
0.1 -5.5377159 2.689225
0.1 -5.4670458 3.0323
0.1 -5.4691458 3.375375
0.1 -5.3963761 3.375375
0.1 -5.3257065 3.7184498
0.1 -5.3278065 4.0615249
0.1 -5.2550364 4.0615249
0.1 -5.3236065 3.375375
0.1 -5.2508364 3.375375
0.1 -5.3215065 3.0323
0.1 -5.4628458 2.3461499
0.1 -5.4649458 2.689225
0.1 -5.3921762 2.689225
0.1 -5.807796 4.0615249
0.1 -5.7371264 4.4046001
0.1 -5.7392263 4.0615249
0.1 -5.6706562 4.0615249
0.1 -5.5999861 4.4046001
0.1 -5.6020861 4.0615249
0.1 -5.7413263 3.7184498
0.1 -5.7434263 3.375375
0.1 -5.811996 3.375375
0.1 -5.5335159 4.0615249
0.1 -5.4628458 4.4046001
0.1 -5.4649458 4.0615249
0.1 -5.3963761 4.0615249
0.1 -5.3257065 4.4046001
0.1 -5.4670458 3.7184498
0.1 -5.5377159 3.375375
0.1 -5.608386 3.0323
0.1 -5.6790562 2.689225
0.1 -5.7497263 2.3461499
0.1 -5.8203959 2.0030749
0.1 -5.7476263 2.689225
0.1 -5.816196 2.689225
0.1 -5.7455263 3.0323
0.1 -5.6041861 3.7184498
0.1 -5.606286 3.375375
0.1 -5.6748562 3.375375
0.1 -8.615591 4.3936005
0.1 -8.6828403 4.3943605
0.1 -8.6127357 4.3956804
0.1 -8.6098804 4.3977604
0.1 -8.6771317 4.3985205
0.1 -8.6070261 4.3998404
0.1 -8.5426311 4.3970003
0.1 -8.4725256 4.3983202
0.1 -8.4753799 4.3962402
0.1 -8.6041718 4.4019203
0.1 -8.6714211 4.4026804
0.1 -8.6013165 4.4040003
0.1 -8.5984612 4.4060802
0.1 -8.6657104 4.4068403
0.1 -8.5956059 4.4081602
0.1 -8.5312119 4.4053202
0.1 -8.4611063 4.4066401
0.1 -8.4639606 4.4045601
0.1 -8.3967113 4.4038
0.1 -8.3266058 4.4051199
0.1 -8.3294601 4.4030399
0.1 -8.2622108 4.4022799
0.1 -8.1921062 4.4035997
0.1 -8.1949615 4.4015198
0.1 -8.3323154 4.40096
0.1 -8.3351707 4.39888
0.1 -8.40242 4.3996401
0.1 -8.5369205 4.4011602
0.1 -8.4668159 4.4024801
0.1 -8.4696712 4.4004002
0.1 -8.1102962 2.02284
0.1 -8.1830254 2.0171299
0.1 -8.2557554 2.01142
0.1 -8.3284855 2.0057099
0.1 -8.1851063 2.3571298
0.1 -8.1871853 2.69713
0.1 -8.1144562 2.7028401
0.1 -8.4012156 2
0.1 -8.4739456 1.9942899
0.1 -8.5466757 1.98858
0.1 -8.6194057 1.9828699
0.1 -8.4760256 2.3342898
0.1 -8.4781055 2.6742899
0.1 -8.4053755 2.6800001
0.1 -8.3347254 3.0257099
0.1 -8.3368053 3.36571
0.1 -8.2640753 3.3714199
0.1 -8.1934261 3.7171299
0.1 -8.1955051 4.0571299
0.1 -8.122776 4.06284
0.1 -8.1913452 3.37713
0.1 -8.1186161 3.3828399
0.1 -8.1892662 3.0371301
0.1 -8.3305655 2.34571
0.1 -8.3326454 2.68571
0.1 -8.2599154 2.6914198
0.1 -8.6895103 1.98155
0.1 -8.6188602 2.3272598
0.1 -8.6183157 2.6716499
0.1 -8.6884212 2.6703298
0.1 -8.6177711 3.0160401
0.1 -8.5482101 2.6729701
0.1 -8.47756 3.0186799
0.1 -8.6172256 3.36043
0.1 -8.6873302 3.3591101
0.1 -8.6166801 3.7048199
0.1 -8.6161356 4.0492101
0.1 -8.6862411 4.0478902
0.1 -8.54603 4.05053
0.1 -8.4759254 4.0518498
0.1 -8.4058208 4.0531702
0.1 -8.3357162 4.0544901
0.1 -8.2656107 4.05581
0.1 -8.3362598 3.7100999
0.1 -8.4069099 3.3643901
0.1 -8.547121 3.3617499
0.1 -8.4764709 3.7074599
0.1 -8.4770155 3.36307
0.1 -11.841502 0.049925018
0.1 -11.852926 0.11564
0.1 -11.804358 0.109925
0.1 -11.767212 0.16992499
0.1 -11.778637 0.23564
0.1 -11.730066 0.22992499
0.1 -11.755787 0.10421
0.1 -11.707216 0.098494992
0.1 -11.744362 0.038494993
0.1 -11.692922 0.28992501
0.1 -11.704347 0.35563999
0.1 -11.655777 0.34992501
0.1 -11.618632 0.40992501
0.1 -11.630056 0.47564
0.1 -11.581488 0.46992502
0.1 -11.607207 0.34421
0.1 -11.558638 0.33849499
0.1 -11.595782 0.27849498
0.1 -11.584357 0.21277998
0.1 -11.535788 0.20706499
0.1 -11.572932 0.14706498
0.1 -11.561507 0.081349984
0.1 -11.512938 0.075634986
0.1 -11.550082 0.015635002
0.1 -11.610077 0.087064981
0.1 -11.647223 0.027064968
0.1 -11.658648 0.092779979
0.1 -11.681497 0.22420999
0.1 -11.632927 0.218495
0.1 -11.670072 0.15849499
0.1 -10.459982 0.47374001
0.1 -10.239982 0.47407001
0.1 -10.388772 0.40781
0.1 -10.317562 0.34187999
0.1 -10.097562 0.34220999
0.1 -10.246352 0.27594998
0.1 -10.537562 0.34154999
0.1 -10.686352 0.27528998
0.1 -10.757563 0.34121999
0.1 -10.175142 0.21001999
0.1 -9.955142 0.21034999
0.1 -10.103932 0.14409
0.1 -10.032722 0.078160003
0.1 -9.8127222 0.078490004
0.1 -9.9615126 0.012229997
0.1 -10.252723 0.077830002
0.1 -10.401512 0.011569995
0.1 -10.472723 0.077500001
0.1 -10.692722 0.077169999
0.1 -10.841513 0.010909992
0.1 -10.912722 0.076839998
0.1 -11.132722 0.076509997
0.1 -11.281512 0.01024999
0.1 -11.352722 0.076179996
0.1 -10.983932 0.14276999
0.1 -11.055141 0.20869999
0.1 -10.835142 0.20902999
0.1 -10.395143 0.20968999
0.1 -10.543932 0.14342999
0.1 -10.615143 0.20935999
0.1 -11.914217 0.60447001
0.1 -11.922787 0.53323001
0.1 -11.965052 0.55198002
0.1 -12.015887 0.49948999
0.1 -12.024458 0.42825001
0.1 -12.066723 0.447
0.1 -12.007317 0.57072997
0.1 -12.049582 0.58947998
0.1 -11.998747 0.64196998
0.1 -12.117558 0.39451
0.1 -12.126127 0.32326999
0.1 -12.168392 0.34202
0.1 -12.219227 0.28952998
0.1 -12.227797 0.21828999
0.1 -12.270061 0.23704
0.1 -12.210657 0.36076999
0.1 -12.252922 0.37952
0.1 -12.202087 0.43200999
0.1 -12.193518 0.50325
0.1 -12.235783 0.52200001
0.1 -12.184947 0.57449001
0.1 -12.176376 0.64573002
0.1 -12.218641 0.66448003
0.1 -12.167807 0.71697003
0.1 -12.134111 0.62698001
0.1 -12.083277 0.67947
0.1 -12.091846 0.60822999
0.1 -12.108988 0.46575001
0.1 -12.151253 0.48449999
0.1 -12.100417 0.53698999
0.1 -12.230062 0.15202999
0.1 -12.179227 0.20451999
0.1 -12.128392 0.25700998
0.1 -12.077558 0.30949998
0.1 -12.130657 0.19074999
0.1 -12.082088 0.17697999
0.1 -12.132922 0.12448999
0.1 -12.026722 0.36199
0.1 -11.975887 0.41448
0.1 -11.925053 0.46697
0.1 -11.874217 0.51946002
0.1 -11.927317 0.40070999
0.1 -11.878747 0.38694
0.1 -11.929583 0.33445001
0.1 -11.931847 0.26819
0.1 -11.883277 0.25441998
0.1 -11.934113 0.20193
0.1 -11.936377 0.13566999
0.1 -11.887807 0.12189999
0.1 -11.938643 0.069409996
0.1 -11.984947 0.14943999
0.1 -12.035782 0.096949995
0.1 -12.033518 0.16320999
0.1 -12.028988 0.29572999
0.1 -11.980417 0.28195998
0.1 -12.031252 0.22947
0.1 -9.7415123 0.56156498
0.1 -9.8127222 0.495635
0.1 -9.8127222 1.0446399
0.1 -9.8839321 1.527715
0.1 -9.955142 1.4617848
0.1 -9.955142 2.0107899
0.1 -9.8127222 1.5936449
0.1 -9.8127222 2.1426499
0.1 -9.7415123 1.659575
0.1 -10.026352 2.4938648
0.1 -10.097562 2.4279349
0.1 -10.097562 2.9769399
0.1 -10.168772 3.4600148
0.1 -10.239982 3.3940847
0.1 -10.239982 3.9430897
0.1 -10.097562 3.5259449
0.1 -10.097562 4.0749502
0.1 -10.026352 3.5918748
0.1 -9.955142 3.6578047
0.1 -9.955142 4.20681
0.1 -9.8839321 3.7237349
0.1 -9.8127222 3.789665
0.1 -9.8127222 4.3386703
0.1 -9.7415123 3.8555949
0.1 -9.8127222 3.24066
0.1 -9.7415123 2.7575848
0.1 -9.8127222 2.6916549
0.1 -9.955142 2.5597949
0.1 -9.955142 3.1087997
0.1 -9.8839321 2.6257248
0.1 -11.627792 0.54189998
0.1 -11.664937 0.48190001
0.1 -11.702082 0.4219
0.1 -11.739226 0.3619
0.1 -11.699817 0.48816001
0.1 -11.734696 0.49441999
0.1 -11.697552 0.55441999
0.1 -11.776371 0.3019
0.1 -11.813517 0.2419
0.1 -11.850662 0.18189999
0.1 -11.848396 0.24816
0.1 -11.846132 0.31441998
0.1 -11.843866 0.38067999
0.1 -11.841602 0.44694
0.1 -11.839336 0.51319999
0.1 -11.837072 0.57945997
0.1 -11.804457 0.50694001
0.1 -11.767311 0.56694001
0.1 -11.769577 0.50067997
0.1 -11.774107 0.36816001
0.1 -11.808987 0.37441999
0.1 -11.771841 0.43441999
0.1 -10.471407 0.539455
0.1 -10.620197 0.47319499
0.1 -10.768987 0.40693501
0.1 -10.917776 0.340675
0.1 -10.780411 0.47264999
0.1 -10.940626 0.472105
0.1 -10.791836 0.53836501
0.1 -11.066566 0.27441499
0.1 -11.215357 0.20815499
0.1 -11.364147 0.14189498
0.1 -11.375572 0.20761
0.1 -11.386997 0.273325
0.1 -11.398422 0.33903998
0.1 -11.409847 0.404755
0.1 -11.421272 0.47047001
0.1 -11.432697 0.53618503
0.1 -11.261057 0.47101501
0.1 -11.112267 0.53727502
0.1 -11.100842 0.47156
0.1 -11.077991 0.34013
0.1 -11.238207 0.33958501
0.1 -11.089417 0.40584499
0.1 -12.635072 0.46284002
0.1 -12.692407 0.42284
0.1 -12.655207 0.48284
0.1 -12.675342 0.50283998
0.1 -12.732677 0.46284002
0.1 -12.695477 0.52284002
0.1 -12.618007 0.54284
0.1 -12.580807 0.60284001
0.1 -12.560672 0.58284003
0.1 -12.715611 0.54284
0.1 -12.772946 0.50283998
0.1 -12.735746 0.56283998
0.1 -12.755881 0.58284003
0.1 -12.813217 0.54284
0.1 -12.776016 0.60284001
0.1 -12.698546 0.62283999
0.1 -12.661346 0.68283999
0.1 -12.641212 0.66284001
0.1 -12.583877 0.70284003
0.1 -12.546677 0.76284003
0.1 -12.526542 0.74284005
0.1 -12.469207 0.78284001
0.1 -12.432007 0.84284002
0.1 -12.411872 0.82284003
0.1 -12.506407 0.72284001
0.1 -12.486272 0.70284003
0.1 -12.543607 0.66284001
0.1 -12.658277 0.58284003
0.1 -12.621077 0.64284003
0.1 -12.600942 0.62283999
0.1 -12.623067 0.37321001
0.1 -12.614496 0.44444999
0.1 -12.565292 0.41481999
0.1 -12.507517 0.45642999
0.1 -12.498947 0.52766997
0.1 -12.449741 0.49803999
0.1 -12.516087 0.38518998
0.1 -12.466883 0.35556
0.1 -12.524657 0.31395
0.1 -12.391967 0.53964996
0.1 -12.383396 0.61088997
0.1 -12.334192 0.58125997
0.1 -12.276417 0.62287003
0.1 -12.267847 0.69410998
0.1 -12.284986 0.55163002
0.1 -12.293557 0.48039001
0.1 -12.302128 0.40915
0.1 -12.310698 0.33791
0.1 -12.319267 0.26666999
0.1 -12.327837 0.19543
0.1 -12.368473 0.29629999
0.1 -12.426248 0.25468999
0.1 -12.417677 0.32593
0.1 -12.400537 0.46840999
0.1 -12.351332 0.43878001
0.1 -12.409107 0.39717001
0.1 -12.230646 0.75411004
0.1 -12.288422 0.71250004
0.1 -12.346197 0.67089003
0.1 -12.403972 0.62928003
0.1 -12.308996 0.73089004
0.1 -12.329572 0.74928004
0.1 -12.271797 0.79089004
0.1 -12.461746 0.58767003
0.1 -12.519522 0.54606003
0.1 -12.577297 0.50445002
0.1 -12.540096 0.56445003
0.1 -12.502897 0.62445003
0.1 -12.465696 0.68445003
0.1 -12.428497 0.74445003
0.1 -12.391296 0.80445004
0.1 -12.354097 0.86445004
0.1 -12.370722 0.78606004
0.1 -12.312946 0.82767004
0.1 -12.350147 0.76767004
0.1 -12.424547 0.64767003
0.1 -12.445122 0.66606003
0.1 -12.387346 0.70767003
0.1 -12.397382 0.91713005
0.1 -12.454847 0.87427002
0.1 -12.477556 0.90856004
0.1 -12.557732 0.89999002
0.1 -12.615196 0.85713005
0.1 -12.637907 0.89142007
0.1 -12.500267 0.94285005
0.1 -12.522978 0.97714001
0.1 -12.442802 0.98571002
0.1 -12.718082 0.88284999
0.1 -12.775547 0.83999002
0.1 -12.798258 0.87428004
0.1 -12.878432 0.86571002
0.1 -12.935898 0.82285005
0.1 -12.958607 0.85714
0.1 -12.820967 0.90856999
0.1 -12.843678 0.94286001
0.1 -12.763502 0.95143002
0.1 -12.706038 0.99428999
0.1 -12.728748 1.02858
0.1 -12.648573 1.0371499
0.1 -12.591108 1.0800099
0.1 -12.613817 1.1142999
0.1 -12.533643 1.12287
0.1 -12.568398 1.04572
0.1 -12.488222 1.0542899
0.1 -12.545687 1.01143
0.1 -12.660618 0.92571002
0.1 -12.683327 0.95999998
0.1 -12.603152 0.96857005
0.1 -12.512182 0.83427006
0.1 -12.569517 0.79427004
0.1 -12.626852 0.75427002
0.1 -12.592357 0.82570004
0.1 -12.672531 0.81713003
0.1 -12.684187 0.71427
0.1 -12.741522 0.67427003
0.1 -12.798857 0.63427001
0.1 -12.856192 0.59426999
0.1 -12.821697 0.66570002
0.1 -12.901873 0.65713
0.1 -12.844538 0.69713002
0.1 -12.867376 0.72856003
0.1 -12.947552 0.71999002
0.1 -12.890217 0.75999004
0.1 -12.913057 0.79141998
0.1 -12.993233 0.78285003
0.1 -12.832882 0.79999
0.1 -12.752707 0.80856001
0.1 -12.707027 0.7457
0.1 -12.787202 0.73712999
0.1 -12.729866 0.77713001
0.1 -13.162168 1.33713
0.1 -13.176232 1.37427
0.1 -13.089687 1.34856
0.1 -13.017207 1.3599899
0.1 -13.031272 1.39713
0.1 -12.944727 1.3714199
0.1 -13.003142 1.32285
0.1 -12.916597 1.2971399
0.1 -12.989078 1.28571
0.1 -12.872247 1.3828499
0.1 -12.886312 1.4199898
0.1 -12.799767 1.3942798
0.1 -12.727286 1.4057099
0.1 -12.741352 1.4428499
0.1 -12.654806 1.4171399
0.1 -12.713222 1.3685699
0.1 -12.626677 1.3428599
0.1 -12.699157 1.3314298
0.1 -12.685092 1.2942899
0.1 -12.598547 1.2685798
0.1 -12.671027 1.2571499
0.1 -12.656962 1.2200099
0.1 -12.570417 1.1942999
0.1 -12.642898 1.1828699
0.1 -12.743507 1.2457199
0.1 -12.815988 1.2342899
0.1 -12.830052 1.2714299
0.1 -12.858182 1.3457098
0.1 -12.771637 1.3199999
0.1 -12.844117 1.3085699
0.1 -12.680637 1.5285649
0.1 -12.753622 1.5085649
0.1 -12.765387 1.58285
0.1 -12.850137 1.6371348
0.1 -12.923121 1.6171348
0.1 -12.934887 1.6914198
0.1 -12.777152 1.6571349
0.1 -12.788918 1.7314198
0.1 -12.704166 1.677135
0.1 -13.019636 1.7457049
0.1 -13.092622 1.7257049
0.1 -13.104387 1.7999899
0.1 -13.189137 1.854275
0.1 -13.262122 1.834275
0.1 -13.273888 1.90856
0.1 -13.116152 1.874275
0.1 -13.127916 1.94856
0.1 -13.043167 1.894275
0.1 -12.970181 1.9142749
0.1 -12.981947 1.98856
0.1 -12.897197 1.9342749
0.1 -12.824212 1.9542749
0.1 -12.835978 2.0285599
0.1 -12.751226 1.9742749
0.1 -12.812447 1.8799899
0.1 -12.727697 1.8257048
0.1 -12.800682 1.8057048
0.1 -12.946651 1.7657049
0.1 -12.958416 1.8399899
0.1 -12.873667 1.7857049
0.1 -13.219633 1.2942699
0.1 -13.133087 1.2685599
0.1 -13.046543 1.2428499
0.1 -12.959997 1.21714
0.1 -13.104008 1.1999899
0.1 -13.074928 1.13142
0.1 -13.161472 1.15713
0.1 -12.873453 1.19143
0.1 -12.786907 1.16572
0.1 -12.700363 1.1400099
0.1 -12.757828 1.09715
0.1 -12.815292 1.0542899
0.1 -12.872758 1.0114299
0.1 -12.930223 0.96857005
0.1 -12.987687 0.92571002
0.1 -13.045153 0.88284999
0.1 -13.016768 0.99428004
0.1 -13.103312 1.01999
0.1 -13.045848 1.06285
0.1 -12.930918 1.1485699
0.1 -12.901838 1.0799999
0.1 -12.988382 1.1057099
0.1 -12.762992 2.0971351
0.1 -12.837492 2.094275
0.1 -12.837492 2.1428499
0.1 -12.911991 2.188565
0.1 -12.986491 2.1857049
0.1 -12.986491 2.2342799
0.1 -12.837492 2.1914251
0.1 -12.837492 2.24
0.1 -12.762992 2.1942849
0.1 -13.060991 2.279995
0.1 -13.135491 2.2771349
0.1 -13.135491 2.3257101
0.1 -13.209991 2.3714249
0.1 -13.284492 2.3685648
0.1 -13.284492 2.4171398
0.1 -13.135491 2.374285
0.1 -13.135491 2.4228599
0.1 -13.060991 2.3771451
0.1 -12.986491 2.3800051
0.1 -12.986491 2.42858
0.1 -12.911991 2.3828652
0.1 -12.837492 2.385725
0.1 -12.837492 2.4343002
0.1 -12.762992 2.3885849
0.1 -12.837492 2.3371499
0.1 -12.762992 2.291435
0.1 -12.837492 2.2885749
0.1 -12.986491 2.282855
0.1 -12.986491 2.33143
0.1 -12.911991 2.2857151
0.1 -12.826101 1.4971349
0.1 -12.898582 1.4857049
0.1 -12.971062 1.4742749
0.1 -12.910851 1.55142
0.1 -12.995602 1.6057049
0.1 -13.043542 1.4628448
0.1 -13.116022 1.4514149
0.1 -13.188502 1.439985
0.1 -13.260983 1.428555
0.1 -13.200772 1.5056999
0.1 -13.285522 1.5599849
0.1 -13.213042 1.5714149
0.1 -13.225312 1.63713
0.1 -13.310062 1.691415
0.1 -13.237582 1.7028449
0.1 -13.249852 1.7685599
0.1 -13.334602 1.822845
0.1 -13.165102 1.7142749
0.1 -13.080352 1.6599898
0.1 -13.055812 1.5285599
0.1 -13.140562 1.582845
0.1 -13.068082 1.594275
0.1 -12.753878 2.4992549
0.1 -12.830261 2.4914448
0.1 -12.821147 2.55354
0.1 -12.888416 2.607825
0.1 -12.964802 2.6000149
0.1 -12.955687 2.6621101
0.1 -12.812033 2.6156352
0.1 -12.802917 2.6777298
0.1 -12.735647 2.623445
0.1 -13.022957 2.7163949
0.1 -13.099342 2.708585
0.1 -13.090227 2.77068
0.1 -13.157497 2.824965
0.1 -13.233883 2.8171551
0.1 -13.224768 2.8792498
0.1 -13.081112 2.8327749
